# .PCD v0.7 - Point Cloud Data file format
VERSION 0.7
FIELDS x y z rgb
SIZE 4 4 4 4
TYPE F F F U
COUNT 1 1 1 1
WIDTH 1076
HEIGHT 1
VIEWPOINT 0 0 0 1 0 0 0
POINTS 1076
DATA ascii
0.044147611 0.10626618 0.55954057 4290817444
0.04496026 0.1058201 0.56044346 4291083176
0.045363843 0.105522 0.56145835 4291545262
0.044591606 0.1056486 0.56280088 4292203188
0.044373155 0.10557459 0.56399345 4292728253
0.086711526 0.089576609 0.55742633 4293518061
0.08775413 0.089058168 0.55818599 4294046715
0.05373311 0.09260311 0.63237083 4292334284
0.054650784 0.092117302 0.63325769 4289568167
0.054961681 0.091840439 0.63438916 4288441717
0.056711912 0.091068663 0.6349352 4288316045
0.054269016 0.091737665 0.63719451 4290231753
0.05455339 0.091469027 0.63834345 4293056988
0.28458324 -0.016621925 0.75936234 4293601681
0.046058834 0.10696719 0.55814087 4292073151
0.045400977 0.10705645 0.55944145 4292338130
0.044978619 0.10705941 0.560682 4292338398
0.044606328 0.10704368 0.56191254 4292469475
0.044290841 0.10685492 0.56426388 4292931562
0.056753516 0.092853375 0.63147748 4291806664
0.05686307 0.092647605 0.63268507 4288646822
0.057130218 0.092218645 0.63508701 4289434008
0.055449784 0.092630826 0.63703537 4291217876
0.057546198 0.091737233 0.63743556 4293254370
0.28464934 -0.015654631 0.75979251 4293860493
0.058625937 0.093658872 0.62979639 4293649117
0.060128391 0.09296871 0.63043875 4291410630
0.06059289 0.092641078 0.63149697 4287986859
0.059773684 0.092427514 0.635584 4291612885
0.28074786 -0.01397229 0.76687229 4293754284
0.28136706 -0.014309429 0.76753348 4294233591
0.28188509 -0.014619648 0.76829851 4294832894
0.061231613 0.094033085 0.62906939 4293452253
0.062390745 0.093462102 0.62984502 4291079358
0.062329412 0.093319811 0.63111246 4287459752
0.062582493 0.092902429 0.63350189 4289963695
0.063115537 0.092551015 0.63453245 4291613909
0.28080657 -0.012985937 0.76732129 4293153672
0.28144798 -0.013329588 0.76796055 4293896915
0.28230405 -0.013730504 0.76837569 4294822372
0.063072681 0.094668485 0.62864685 4293387994
0.064747512 0.093914278 0.62921125 4290750130
0.063770056 0.094097562 0.63084656 4286738081
0.064302623 0.093584217 0.63311791 4290097588
0.065612376 0.092959605 0.63382584 4291745237
0.28225997 -0.012375928 0.7663312 4293006419
0.28269741 -0.012664318 0.76717782 4293613730
0.28269979 -0.012835167 0.76847702 4294344636
0.019720674 0.13566667 0.45911744 4294440422
0.020831704 0.13510096 0.45998362 4291217359
0.021310806 0.13478494 0.46091303 4288316078
0.066552997 0.094714291 0.62756425 4293321943
0.068605423 0.093824215 0.62796915 4290418347
0.066917777 0.094264336 0.62988651 4285949597
0.065479636 0.094614573 0.63171172 4286806176
0.069057584 0.093183525 0.63148713 4290295221
0.069855452 0.092740037 0.63239658 4291875539
0.066839039 0.09604954 0.62653136 4293652204
0.07088244 0.094442628 0.62613678 4292860370
0.071573615 0.0940376 0.62708318 4289956264
0.069549859 0.094445087 0.63036692 4286674848
0.071629405 0.093543477 0.63074875 4290426293
0.072185516 0.093186311 0.63175344 4291875026
0.019455314 0.13818046 0.45944726 4294638588
0.019714713 0.137952 0.46040171 4292338163
0.019703865 0.13783112 0.46138498 4289970371
0.019803226 0.13766611 0.46235844 4286877853
0.074142754 0.094694413 0.623918 4293389286
0.076144934 0.09381748 0.62432933 4292333514
0.073714435 0.094537936 0.62652963 4289359774
0.018411815 0.13968179 0.4606874 4293456886
0.018740416 0.13942567 0.46163845 4291545808
0.01911664 0.13915041 0.46258521 4286549676
0.019304097 0.13895059 0.46355262 4282679697
0.07771039 0.094665043 0.62279642 4293191390
0.079222679 0.093963407 0.62339783 4291675584
0.079758823 0.093616076 0.62439108 4288834194
0.073044956 0.095894493 0.6283406 4285420687
0.017767489 0.14115328 0.46090668 4294113530
0.01840961 0.14077109 0.46182698 4292863453
0.019169688 0.14034158 0.46273452 4288848827
0.019706786 0.14000177 0.46366528 4285691783
0.067205191 0.11158841 0.53291452 4294310908
0.067267597 0.11130125 0.53500003 4291277247
0.068657696 0.11063383 0.53571624 4288576643
0.081522465 0.094532587 0.62157309 4292926417
0.081776142 0.094289072 0.6226753 4290950316
0.017810225 0.14235097 0.46105605 4294835451
0.018393159 0.14199254 0.46198317 4294175718
0.019037724 0.14160919 0.46290365 4291151054
0.020048916 0.14107767 0.46378452 4288652200
0.017421067 0.14201629 0.46506003 4288124558
0.038277388 0.12616345 0.52261645 4290228441
0.039081872 0.12571564 0.52351815 4292663027
0.04117173 0.12476522 0.52414662 4294835961
0.065323651 0.11351264 0.533575 4293785334
0.066455603 0.1129429 0.53435814 4292597725
0.066778779 0.11268681 0.53533399 4290814394
0.069531024 0.11148987 0.53572094 4288910233
0.085380137 0.094368406 0.62032783 4292333505
0.085810542 0.094061635 0.62135142 4290159508
0.01834929 0.14322698 0.46214247 4294373871
0.019413054 0.14267302 0.46301934 4291744735
0.020320892 0.14218256 0.46391135 4289440966
0.020255268 0.1420874 0.46490839 4287796400
0.040888667 0.12637514 0.52227968 4288384461
0.041157007 0.12613824 0.52329028 4291870441
0.041955709 0.12569267 0.52418947 4294770164
0.06568718 0.11457092 0.53370374 4293256941
0.066520274 0.11411641 0.53455842 4292464088
0.066953182 0.11381797 0.53550863 4291674556
0.066933751 0.11369558 0.53656912 4290952880
0.017777264 0.14467916 0.46235725 4294506485
0.019220948 0.14396888 0.46319532 4292469993
0.020081222 0.14349699 0.46409339 4290293957
0.021898627 0.14263487 0.4648858 4287531943
0.042275786 0.12706238 0.52219725 4287273140
0.04089421 0.12747878 0.52355421 4291079376
0.042042553 0.12689438 0.52438027 4294376169
0.019038916 0.14538282 0.46238035 4294638844
0.019548059 0.14505428 0.46331638 4293061106
0.019986451 0.14475477 0.46426016 4290950855
0.020866573 0.14427415 0.4651559 4286941090
0.021509469 0.14389086 0.46607691 4283920781
0.039603591 0.12936053 0.52296418 4287537063
0.040970862 0.12868747 0.52374697 4290618814
0.043325186 0.12762257 0.52431667 4293391328
0.01945138 0.14631495 0.46348268 4293654005
0.019711673 0.1460889 0.46444666 4291675603
0.020469368 0.14565793 0.46535698 4286743983
0.021583796 0.14508021 0.46622682 4282928262
0.018403172 0.14797193 0.46375099 4294179833
0.019018769 0.14759907 0.46467897 4292730591
0.019822299 0.14714849 0.46558601 4288453309
0.020721436 0.14665842 0.46648154 4284833409
0.018012941 0.14936107 0.46394962 4294638586
0.018683851 0.14896488 0.46487287 4293585128
0.019281924 0.14859906 0.46580383 4290032841
0.02112329 0.14771661 0.46659541 4286740356
0.018253446 0.15037385 0.46507764 4293915121
0.018837094 0.15001377 0.46601158 4291282902
0.020928741 0.14902407 0.46677619 4288122508
0.017128348 0.15207797 0.46535873 4294375159
0.019356132 0.15102753 0.46611294 4292336097
0.018733144 0.15105802 0.46818471 4284899447
0.020268857 0.15164673 0.46817002 4286541968
0.020961165 0.15124068 0.46909216 4284038774
0.017366529 0.15263933 0.47051799 4284172401
0.28502452 0.0023350716 0.76855123 4294693042
0.28505224 0.0020255223 0.77115631 4294056243
0.017210007 0.15440354 0.4666703 4293718259
0.019007325 0.15352875 0.4674719 4291875025
0.020807385 0.15265325 0.46826914 4288056746
0.021612048 0.15219942 0.46917805 4285350008
0.28384233 0.0035880283 0.77163154 4294548560
0.28489593 0.0031042472 0.77184469 4294122277
0.016973138 0.15574482 0.46685681 4294244856
0.018086314 0.15515852 0.46773675 4292665828
0.019462168 0.1544607 0.46858463 4288914624
0.020368457 0.15396279 0.46948457 4285617024
0.2876963 0.0038266331 0.76417637 4292955228
0.28416759 0.0045177341 0.77181298 4294554494
0.28589937 0.0038153753 0.7713086 4294189122
0.016919613 0.15701056 0.46702319 4294703865
0.017917275 0.15647238 0.46791691 4293519343
0.018953323 0.155918 0.46880478 4290297041
0.019978404 0.15536851 0.46969235 4287263376
0.017956614 0.15612006 0.4709391 4284300144
0.015512764 0.15705079 0.47224495 4283713150
0.28731042 0.0049731657 0.76509213 4293088604
0.2884708 0.0044524297 0.76518303 4293844190
0.28419757 0.0055433288 0.7723062 4294557107
0.28560114 0.0049430951 0.77214885 4294189413
0.017845929 0.15774685 0.46808624 4294243063
0.018351078 0.15741932 0.46903613 4292861922
0.019289017 0.1569061 0.46993557 4291543725
0.018615246 0.15708435 0.47102496 4290293140
0.017186403 0.15758592 0.47220916 4289965470
0.28797677 0.0057799146 0.7649104 4293157755
0.28859732 0.005433768 0.76556557 4293911012
0.28370267 0.0067422763 0.77335501 4294559932
0.016579926 0.15942916 0.46940336 4294441460
0.018012345 0.15870154 0.47024828 4294176737
0.019326806 0.15802509 0.47110438 4293914071
0.019279838 0.15793538 0.47212213 4293652185
0.28434965 0.0075708926 0.77319849 4294560958
0.2853573 0.0085634217 0.77000773 4294307056
0.28416607 0.0088169575 0.77258921 4294770404
0.28382552 0.008786805 0.77428204 4294562499
0.28624883 0.0093030855 0.76959199 4294506229
0.28489035 0.0096177831 0.77235097 4294835943
0.28443676 0.0096280277 0.77416372 4294563273
0.28455102 0.010776468 0.77323782 4294835948
0.28436005 0.010700472 0.77477574 4294631637
0.28716817 0.011973076 0.77151912 4294901492
0.28653294 0.012054436 0.77352566 4294760423
0.15318662 0.096866973 0.61777431 4284634734
0.15340441 0.096668191 0.61879551 4286681484
0.15433049 0.096169375 0.6194939 4288914085
0.15441352 0.097402848 0.6186378 4284505457
0.15551713 0.096827604 0.61925316 4287732894
0.1556564 0.098034643 0.61837256 4281738583
0.15622163 0.097688682 0.61923289 4285885847
0.15722704 0.097154357 0.61988997 4289499796
0.15813604 0.096661486 0.62058938 4290816917
0.15633973 0.098903604 0.61836225 4278985557
0.15757635 0.098268501 0.61891341 4284044410
0.15859744 0.097726472 0.61956078 4288646810
0.15956792 0.097206391 0.62022924 4290819767
0.16056889 0.096673407 0.62088144 4292591805
0.15888464 0.099466391 0.61195982 4289372298
0.16036189 0.098725297 0.6124 4287461220
0.15890124 0.098856829 0.61860645 4283449180
0.159859 0.098341174 0.61928076 4285302687
0.16098005 0.097755037 0.61987704 4289509593
0.16151756 0.097421505 0.62074316 4292927186
0.16277686 0.096776016 0.6212703 4293187532
0.16020218 0.10004517 0.61166543 4289965977
0.16167676 0.099303119 0.61210424 4288907122
0.16254684 0.098825164 0.61281157 4286131277
0.16086087 0.099064939 0.61912 4282210426
0.16202056 0.098460682 0.61969662 4288131507
0.16197562 0.098380439 0.62083387 4293187534
0.16275501 0.097941704 0.62158614 4294112995
0.16157186 0.10059679 0.6113466 4290884775
0.16245499 0.10011219 0.6120488 4290030208
0.16277832 0.099873312 0.61300248 4286404186
0.16236559 0.099467583 0.61983967 4285953165
0.16205016 0.099506952 0.62110424 4289774537
0.16255146 0.09918905 0.62198812 4291879416
0.16308519 0.098856978 0.62285674 4293588982
0.16331032 0.10098112 0.61086136 4291742125
0.1634737 0.10081352 0.61188465 4291013508
0.16381085 0.10056911 0.61283082 4286668380
0.16247481 0.10067581 0.61897743 4281482310
0.16274333 0.10036326 0.62108481 4286418580
0.16294947 0.10017515 0.62210727 4289709265
0.16319323 0.099970408 0.62311339 4292336354
0.16346025 0.099755324 0.62410975 4293323505
0.16394886 0.10184742 0.61086822 4291346099
0.16445187 0.10152999 0.61173803 4290096521
0.16506657 0.10116301 0.61255717 4286541408
0.16310647 0.10136423 0.62122011 4284246370
0.16324866 0.10120512 0.62227321 4287734185
0.163629 0.1009407 0.62321496 4290822094
0.16347572 0.10091177 0.62441188 4292007915
0.16353816 0.10078741 0.62550861 4293061358
0.16375759 0.10223754 0.62122005 4282343015
0.16338688 0.10230733 0.62251532 4286025370
0.16383621 0.10201251 0.62342513 4289375162
0.16415495 0.10177562 0.62439764 4290822356
0.16407567 0.1017153 0.62556207 4292138719
0.16327357 0.10361721 0.62175447 4283519852
0.16438538 0.10302658 0.62235057 4285296522
0.16478238 0.10275542 0.62328398 4287209381
0.16479099 0.10265758 0.62440372 4289247422
0.16427636 0.10279302 0.6257773 4291086031
0.16392744 0.10285411 0.62707579 4292271071
0.16442335 0.10253827 0.62796831 4293192170
0.16528198 0.10369638 0.62335497 4285106574
0.16531646 0.10358819 0.62446249 4287738535
0.16493011 0.10366861 0.62577486 4289903537
0.16412151 0.10393805 0.62729573 4291087294
0.16458446 0.10363699 0.62820482 4292204501
0.16494063 0.10338371 0.62916642 4293256934
0.16593713 0.10284362 0.62981457 4293913066
0.16620916 0.10262801 0.63081765 4293913837
0.16671014 0.10230989 0.6317085 4293913837
0.166024 0.10443621 0.62443388 4285301646
0.16510218 0.10476048 0.62600422 4286092176
0.16564664 0.10442298 0.62687129 4286158747
0.16521561 0.10452522 0.62821299 4287080382
0.16577739 0.10417975 0.62907362 4288856024
0.16583046 0.1040634 0.63018417 4290303970
0.16660371 0.10362268 0.63094121 4290828776
0.16753614 0.10311047 0.63161802 4291288549
0.16878897 0.1024543 0.63213307 4291682534
0.17006743 0.10178692 0.63263178 4292076266
0.17072773 0.10139758 0.63343799 4292469998
0.17176336 0.10083971 0.63405359 4292863983
0.1723029 0.10050479 0.63491887 4293324786
0.1728642 0.10016013 0.63577294 4293523189
0.17332458 0.099860735 0.63667858 4293522935
0.17413732 0.099403329 0.63740277 4293653495
0.16609395 0.10557222 0.62471104 4283189860
0.16595411 0.10554526 0.62590587 4282597730
0.16585377 0.10550015 0.62708461 4281811048
0.16604781 0.10532138 0.62812287 4282078335
0.16652977 0.10501205 0.6290217 4284573845
0.16579124 0.10525537 0.6305213 4286676648
0.16664639 0.10477687 0.63123882 4287665589
0.16771969 0.1041998 0.63184631 4288586675
0.16866523 0.10368072 0.63251495 4289310905
0.17007458 0.10295216 0.63294882 4289900998
0.17125374 0.10232794 0.63349438 4290623696
0.17228669 0.10177002 0.63411075 4291348950
0.17309234 0.10131491 0.63484037 4292072922
0.17351323 0.10103355 0.63576531 4292466909
0.17397517 0.10073365 0.63666975 4292599009
0.17496091 0.10019753 0.63730383 4292796901
0.17524576 0.099977486 0.63829935 4293256423
0.17593706 0.09957426 0.6390841 4293583846
0.17659485 0.099186189 0.63988549 4293847014
0.17722398 0.098811083 0.64070129 4294046184
0.1777302 0.098491289 0.64158148 4294178539
0.17855981 0.098026089 0.64228994 4294309873
0.17952007 0.097502299 0.64292705 4294439923
0.1802465 0.097083725 0.64368737 4294570739
0.16606271 0.10666702 0.62616611 4281209914
0.16623902 0.10640771 0.62834507 4280287814
0.16672692 0.10591581 0.6315183 4284891780
0.16758764 0.10543398 0.63223207 4285615749
0.16814446 0.10509049 0.63309616 4286010509
0.16953793 0.10436673 0.63353968 4286538401
0.17129445 0.10347836 0.63379562 4287069361
0.17212257 0.10301209 0.6345166 4287793338
0.17287946 0.10257829 0.63527232 4288776386
0.17339367 0.1022547 0.63615119 4289170885
0.17437533 0.10171909 0.63678944 4289108426
0.17545134 0.10114088 0.63737667 4288979152
0.1765267 0.10056316 0.63796145 4288850131
0.17697144 0.10027135 0.63887268 4288852435
0.17757958 0.099905498 0.63969857 4288856533
0.17772388 0.099749632 0.64076841 4288989401
0.17827576 0.09940923 0.64162433 4289120224
0.17913488 0.098929919 0.64231658 4289580267
0.18043092 0.098253228 0.64277351 4290305262
0.18114993 0.097837605 0.64353651 4290962669
0.18168676 0.097504295 0.64439672 4291488241
0.18199125 0.09727589 0.64538276 4291685880
0.18224424 0.097070627 0.64639783 4291686906
0.18276998 0.09674225 0.64726508 4292146426
0.18363121 0.096262641 0.64794785 4292737274
0.1843189 0.095861368 0.64872468 4292999162
0.18492526 0.095496781 0.64954567 4293064698
0.18594608 0.094945647 0.65013528 4293326586
0.18670028 0.094514705 0.65087157 4293654266
0.1872732 0.094165407 0.65170854 4293981690
0.18786711 0.093806691 0.65253341 4294245371
0.18837905 0.093484856 0.6534043 4294440957
0.16624784 0.10740154 0.63093358 4281802576
0.16693658 0.10699744 0.63173419 4282464094
0.16647342 0.10712028 0.63310802 4283056740
0.16821003 0.10623699 0.63338506 4283318380
0.16910839 0.10573725 0.63407803 4283649143
0.17079854 0.10487593 0.63436878 4284111235
0.17169765 0.10437629 0.63505578 4284771218
0.17238936 0.10397146 0.63584673 4285754268
0.17325518 0.10348728 0.63654751 4286147488
0.17432871 0.10290847 0.6371395 4285951129
0.17701909 0.10141487 0.63917631 4284506237
0.1776557 0.10103577 0.63998812 4284178310
0.17802024 0.10078052 0.64094293 4284111766
0.17857733 0.10043762 0.64179635 4284244899
0.17937648 0.099984683 0.64252067 4284969899
0.18059427 0.099341549 0.64301944 4286218930
0.18130338 0.09892983 0.64378828 4287206326
0.1825642 0.098267622 0.64425802 4288191933
0.18299639 0.097981848 0.64517373 4288587461
0.18304339 0.097870834 0.64629996 4288655304
0.18316332 0.097726576 0.64738858 4289444809
0.18388954 0.097307272 0.64814544 4290560463
0.1845521 0.096916892 0.64893651 4291086040
0.18533301 0.096472986 0.64966106 4291284445
0.18627769 0.095955022 0.65029287 4291812321
0.18673289 0.095658757 0.65119684 4292468453
0.18733183 0.095297463 0.65202016 4292992746
0.18806359 0.094876118 0.6527679 4293518057
0.18892711 0.094395317 0.65343958 4293847525
0.18975943 0.093928762 0.65412736 4294110442
0.19122267 0.093177415 0.65445161 4294506738
0.19224423 0.092625834 0.65502542 4294703861
0.19313636 0.092132844 0.65567136 4294769912
0.19392207 0.091687985 0.65637726 4294769656
0.17770386 0.10209254 0.64144146 4282843989
0.17874992 0.10152573 0.64203709 4281598310
0.17959091 0.10105287 0.64273953 4281467245
0.18088302 0.10037396 0.64319849 4282057077
0.18171829 0.099904053 0.64389962 4282581374
0.17933267 0.10090523 0.64634156 4283040135
0.18061757 0.10022969 0.64680314 4283243152
0.18262941 0.099222757 0.64686394 4283248277
0.18311164 0.098914064 0.64775622 4283645847
0.18384403 0.098491319 0.64851081 4284173474
0.18492669 0.097909041 0.64907044 4284439475
0.18557993 0.097522594 0.64986598 4284509628
0.18674517 0.096903063 0.65037465 4284773827
0.18738768 0.096521683 0.65117341 4285168331
0.18792188 0.096189655 0.65203261 4285630676
0.18863422 0.095776625 0.65279078 4286227922
0.18967256 0.095215492 0.65336245 4287017676
0.19044232 0.094776578 0.65408486 4287808214
0.19134319 0.094278224 0.65473068 4288334054
0.19326791 0.093315296 0.65478396 4288794604
0.19437984 0.092721708 0.65530074 4289451761
0.19480702 0.092438914 0.65621293 4290373876
0.19552258 0.092025362 0.65695703 4290833908
0.19617319 0.091641314 0.65773809 4291295224
0.19659713 0.09136001 0.65865213 4291688700
0.19679278 0.091182001 0.65970188 4292016380
0.19742757 0.090805165 0.66049194 4292540669
0.1979121 0.090496324 0.66137111 4293000189
0.19881043 0.090000413 0.66200197 4293262589
0.19936565 0.089659698 0.66283774 4293459453
0.19988918 0.089333318 0.66369241 4293787133
0.20093116 0.088772871 0.6642316 4294180349
0.1779508 0.10306213 0.64279485 4279238961
0.17935213 0.10233057 0.64320081 4278255924
0.1804536 0.10173716 0.64376324 4278255928
0.1802704 0.1017342 0.64501548 4278255934
0.180998 0.10131267 0.64577776 4278255938
0.18159375 0.1009518 0.6466108 4278255942
0.18226016 0.1005585 0.64740479 4278255944
0.18338841 0.099953435 0.64794421 4278255945
0.18439469 0.099404536 0.64854795 4278255951
0.18540621 0.098853417 0.64914626 4278255959
0.18686548 0.098009892 0.65065062 4278255967
0.18756154 0.097603627 0.65142 4278256741
0.1885677 0.097055547 0.65201342 4278716013
0.18938404 0.096594475 0.65271187 4279377780
0.19025326 0.096109368 0.65337867 4280430204
0.19075024 0.095794477 0.6542567 4281746569
0.19181225 0.095221497 0.65480983 4282537368
0.19346988 0.09437684 0.65501618 4283261598
0.19452563 0.093807258 0.65556574 4284510370
0.19527981 0.093375482 0.65628815 4285824685
0.19592848 0.092991896 0.65707111 4286746808
0.19671604 0.09254507 0.65777159 4287864766
0.19641221 0.09259551 0.65911531 4288523968
0.19655293 0.092443205 0.66019946 4289180875
0.19812962 0.091637217 0.66042989 4290101719
0.19867438 0.091301106 0.66127235 4291086042
0.19957337 0.090803929 0.66190165 4291481307
0.2004782 0.090304248 0.66252536 4291876573
0.20079765 0.090070702 0.66350198 4292536286
0.20140332 0.089707084 0.66430521 4293257703
0.20202166 0.089337744 0.66510022 4293586674
0.20265108 0.088963427 0.66588777 4293914611
0.203596 0.088446088 0.66647995 4294177779
0.204519 0.087938853 0.66708338 4294374645
0.2051698 0.087555133 0.66785395 4294507512
0.20562866 0.087258421 0.66874385 4294704373
0.20636433 0.086836345 0.66946012 4294770162
0.20707744 0.086424582 0.67018938 4294770166
0.20800975 0.085913755 0.67077863 4294770172
0.20862308 0.085547321 0.67156851 4294770428
0.19054487 0.09722171 0.65239906 4278780189
0.19085214 0.096994124 0.65338433 4279304496
0.19122237 0.096737541 0.65433455 4279959872
0.19266149 0.09598992 0.65467006 4280353101
0.19419321 0.095200188 0.65494722 4280615251
0.19507873 0.094707392 0.65559447 4281270615
0.19554409 0.094407476 0.65648496 4281860457
0.1959841 0.094119184 0.65739053 4282384767
0.19659942 0.093750484 0.65819323 4282777986
0.19577658 0.094040744 0.65984595 4283110274
0.19655401 0.093597613 0.66055501 4283636632
0.19792712 0.092881925 0.66090721 4284037040
0.19895729 0.092323489 0.6614604 4284565942
0.19980669 0.091847964 0.66211963 4284768696
0.20090589 0.091258325 0.66262591 4284905915
0.20169437 0.090810932 0.66331786 4285301438
0.20193809 0.090612479 0.66434062 4285631950
0.20271057 0.090172507 0.66504073 4286224355
0.20324013 0.089843504 0.66588902 4286818021
0.20357391 0.089603789 0.66685814 4287737318
0.20538113 0.088692226 0.66691351 4288592618
0.20608082 0.088285901 0.66765231 4289052911
0.20646518 0.088023342 0.66858757 4289513706
0.20693088 0.08772368 0.66947234 4290171621
0.20732844 0.087455027 0.67040038 4290896622
0.20805386 0.087037154 0.67112106 4291225337
0.20862442 0.086689807 0.67193913 4291554809
0.20899951 0.086431332 0.67288196 4292014074
0.20936736 0.086176105 0.67383015 4292474875
0.21067983 0.085491814 0.67416942 4292737021
0.21110308 0.085211508 0.6750806 4292999933
0.21201581 0.084709071 0.6756736 4293196541
0.21279109 0.084269173 0.67635423 4293459453
0.21362984 0.083800562 0.67699158 4293852670
0.21427935 0.08341787 0.6777519 4294245886
0.21464947 0.083161764 0.67869639 4294377213
0.19897598 0.093553878 0.66063786 4278321493
0.19934997 0.093296148 0.66158271 4278321498
0.20050797 0.09267775 0.66205573 4278321500
0.20163643 0.09207318 0.66254318 4278321501
0.20280665 0.091449656 0.66300189 4278321502
0.2026071 0.091455676 0.66429389 4278326888
0.20302764 0.091176637 0.66520905 4279049843
0.20284966 0.091172315 0.66649365 4279970175
0.20363775 0.090724476 0.66718388 4281413257
0.2042518 0.090356581 0.66798091 4282992788
0.20604593 0.089447759 0.66804045 4283718816
0.20707449 0.088890232 0.66857314 4284378785
0.2073935 0.088657908 0.66954982 4285695393
0.20811561 0.088240974 0.67027259 4286942898
0.20872214 0.087876983 0.6710676 4287668164
0.20914909 0.087595202 0.67197657 4288325315
0.20959941 0.087302692 0.67287105 4289246145
0.21002197 0.087022848 0.67378366 4290165196
0.21130836 0.086348377 0.67413855 4290561495
0.2117826 0.086045049 0.67501611 4291022045
0.21251261 0.085624956 0.67572713 4291485410
0.21321812 0.085216157 0.67645299 4292010473
0.21393195 0.084803648 0.67717224 4292667888
0.21457028 0.084425621 0.67794013 4293389039
0.21479911 0.084234215 0.6789788 4293652461
0.21574938 0.08371418 0.67953867 4293849583
0.21676886 0.083162837 0.68004978 4294048755
0.21727273 0.082846247 0.68090415 4294507507
0.21809804 0.082383521 0.6815418 4294704116
0.21893179 0.081917055 0.68217182 4294900724
0.21972424 0.081469528 0.68282813 4294901492
0.22099954 0.080802836 0.68315309 4294901496
0.22148857 0.080493368 0.68401265 4294901501
0.20820799 0.089429878 0.66940534 4283105630
0.20931959 0.088833071 0.66988015 4283957878
0.20951959 0.088656105 0.67093158 4284232849
0.20974109 0.088469125 0.6719709 4284496526
0.21011767 0.08821068 0.67291224 4284694410
0.21066821 0.087872259 0.67374223 4284826524
0.21175015 0.087289669 0.67422807 4284830640
0.21261546 0.086806826 0.67485154 4284899259
0.21350455 0.086313196 0.67545736 4285098694
0.21450838 0.085767068 0.67598593 4285298130
0.21465647 0.085613646 0.67707503 4285759968
0.21485293 0.085437916 0.67813408 4286223069
0.21538988 0.085106008 0.67896891 4286946522
0.21626422 0.084619589 0.67957848 4287738079
0.2170935 0.084153943 0.68021619 4288198117
0.21801692 0.083645321 0.68078876 4288658662
0.21893388 0.083139859 0.68136334 4289382890
0.21966794 0.082718201 0.68205953 4289977834
0.22030324 0.082341753 0.68282163 4290240490
0.22105965 0.081910037 0.68350023 4290569459
0.22156969 0.081590928 0.6843465 4291094525
0.22218248 0.081224926 0.68512189 4291621371
0.2229265 0.080799095 0.68580568 4292080378
0.2242457 0.080111094 0.68608832 4292607228
0.22535557 0.079518847 0.68651235 4292672766
0.22588199 0.079192631 0.68734181 4292804350
0.22629395 0.078918599 0.68825161 4293263102
0.22652611 0.078726344 0.68928909 4293721854
0.22643232 0.078682266 0.69055939 4294049534
0.21007201 0.089462943 0.6721319 4280889948
0.21531481 0.086536683 0.67583495 4278848111
0.21511081 0.086546712 0.67715538 4279108213
0.21548557 0.086289562 0.67809665 4279373940
0.21685696 0.085488625 0.67956614 4281808768
0.21768406 0.085023127 0.68020451 4282469006
0.21849236 0.084566422 0.68085378 4283193745
0.21944246 0.084044583 0.68140543 4284049300
0.22013345 0.083642103 0.6821304 4284969629
0.2206248 0.083331488 0.68299043 4285629353
0.22123402 0.082966708 0.68376982 4286221492
0.22168979 0.082672454 0.68465412 4287274175
0.22238344 0.082268976 0.68537444 4288324035
0.2231639 0.081825711 0.68603343 4289309640
0.22465494 0.081056572 0.68619621 4290294731
0.22607872 0.080318727 0.68640029 4290495438
0.22638035 0.080095552 0.68738663 4290759126
0.22679609 0.079820015 0.6882937 4291680223
0.22716045 0.079567991 0.68923759 4292598757
0.22719359 0.079467513 0.69041765 4293192427
0.22774416 0.079130076 0.69123125 4293782766
0.22832584 0.078778453 0.6920222 4294179826
0.22938856 0.078207009 0.69246662 4294572023
0.23115009 0.0773165 0.69240296 4294637564
0.2316618 0.076997302 0.69323838 4294768631
0.232279 0.076629959 0.69399679 4294835953
0.23284444 0.076286264 0.69479239 4294901493
0.23348683 0.075907506 0.69553113 4294901497
0.23420051 0.075496309 0.69621634 4294901499
0.23481959 0.075128339 0.6969704 4294901502
0.22170061 0.083889671 0.68383956 4283105650
0.22209969 0.083621748 0.68476284 4283436417
0.22262612 0.083294965 0.68559861 4283764107
0.22285533 0.083105423 0.68664056 4284032918
0.22376719 0.08260069 0.68720818 4284363162
0.22591141 0.081527732 0.68691093 4284500383
0.22625422 0.081285991 0.6878702 4284635567
0.22689801 0.080905475 0.68861806 4285098432
0.22753584 0.08052776 0.6893692 4285496012
0.22775197 0.080344282 0.69041961 4286088664
0.22824019 0.080035456 0.69127733 4286616799
0.22892755 0.079635002 0.69199222 4287470822
0.22965172 0.07921771 0.69267946 4288325104
0.2319479 0.078077964 0.69222826 4288918011
0.23240271 0.077784933 0.69310379 4289577968
0.23255146 0.077632435 0.6942029 4289710309
0.23308232 0.077304386 0.69502419 4289843948
0.23390552 0.076842241 0.69563031 4290566644
0.23454797 0.076463111 0.69636798 4291291897
0.23515669 0.076099508 0.69712979 4291357950
0.23606789 0.075597353 0.69766575 4291491326
0.23657328 0.07528124 0.69850254 4291819006
0.2376802 0.074689768 0.69888788 4292082942
0.23895419 0.074022122 0.69914371 4292279550
0.2397182 0.073588006 0.69978052 4292542206
0.24029806 0.073238216 0.70055556 4293000958
0.24073541 0.072953559 0.70143867 4293525246
0.24123725 0.072639413 0.70227277 4293918462
0.24167737 0.072353475 0.70315427 4294311678
0.22808662 0.081406526 0.68937641 4278453365
0.22844613 0.081074782 0.69153082 4279514242
0.22915694 0.080662914 0.69222939 4280827782
0.22985464 0.080257185 0.69293606 4282141839
0.23307163 0.078686632 0.69181669 4283258776
0.23185098 0.079168268 0.69390881 4284374683
0.23286948 0.078614689 0.69437599 4284573341
0.23357219 0.078207187 0.69507152 4284838822
0.2345075 0.077692382 0.69559467 4286219184
0.23516193 0.077307366 0.69632274 4287663543
0.2357333 0.07696072 0.69711161 4287864255
0.23650998 0.076519452 0.69774687 4288127681
0.23698029 0.076219462 0.69860983 4288719812
0.23788649 0.075718738 0.69914544 4289311950
0.23881254 0.075209029 0.69966352 4289710297
0.23980978 0.074666716 0.7001251 4290170072
0.24030873 0.074353822 0.70096254 4291155671
0.24082518 0.074032895 0.70178664 4292139746
0.24139887 0.073685654 0.70256674 4292930542
0.24218565 0.073240586 0.70318228 4293717231
0.24277204 0.072887607 0.70395082 4294177520
0.24334624 0.072540291 0.70472836 4294636533
0.24438155 0.071981512 0.70514619 4294704890
0.24470863 0.071747653 0.70611447 4294835959
0.2452845 0.071399696 0.7068885 4294835957
0.24597812 0.070997857 0.70756912 4294901496
0.24644083 0.07070183 0.7084313 4294901500
0.24684545 0.070432357 0.7093398 4294901501
0.23270011 0.079905607 0.69369555 4282712646
0.23321187 0.079586215 0.69453144 4282779990
0.2361142 0.077911861 0.6972385 4283699840
0.23733258 0.077264957 0.6975441 4283503493
0.2377111 0.077007689 0.69847459 4283638667
0.23823628 0.076682411 0.6992954 4283771039
0.23882908 0.076325826 0.70006508 4283974324
0.23959717 0.07588812 0.70070112 4284174514
0.24006736 0.075588383 0.7015624 4284702384
0.24075595 0.075187631 0.70225686 4285164231
0.2414028 0.074806236 0.70298219 4285561054
0.24254122 0.074197747 0.70332772 4285958112
0.24371734 0.073572092 0.7036401 4286682594
0.2444343 0.073158734 0.70430505 4287409388
0.24467829 0.072963767 0.70533741 4287804662
0.24509591 0.072688572 0.70623535 4288266993
0.24557638 0.07238438 0.70708436 4288661229
0.24616382 0.07203088 0.70784903 4289056755
0.24670923 0.071696796 0.70864642 4289714938
0.24727771 0.071352087 0.70942509 4290377724
0.24894702 0.070500784 0.70932418 4290770942
0.24952862 0.070150338 0.71008795 4291230974
0.25023738 0.06974148 0.71074879 4291886334
0.25037083 0.069597103 0.71187317 4292542206
0.25082707 0.069304295 0.71273792 4292607742
0.25113925 0.069077633 0.71372026 4292673278
0.25190279 0.068643726 0.71433467 4293066494
0.25230309 0.068376593 0.71524549 4293459710
0.25303429 0.067957677 0.71588427 4293983997
0.23862022 0.077549927 0.70063794 4278255967
0.23943353 0.077090256 0.70124125 4278255964
0.23984864 0.076816119 0.70214641 4278255961
0.24069816 0.076339804 0.70271939 4278255972
0.24207109 0.075620137 0.70288789 4278255983
0.24290204 0.075152822 0.70346928 4278256753
0.2439051 0.074605681 0.70391524 4279174515
0.24424553 0.074366562 0.7048735 4280166786
0.24442416 0.0742025 0.70595908 4280890513
0.24490407 0.073898487 0.70681036 4281682328
0.24544358 0.073566817 0.70761478 4282472351
0.24549907 0.073459588 0.70880145 4283263911
0.2456277 0.07331831 0.70993292 4284514735
0.24987316 0.071188353 0.70901316 4286682811
0.24993217 0.071079649 0.71019483 4287536573
0.25073668 0.070625879 0.7107783 4288850623
0.25090817 0.070464961 0.71187198 4290164171
0.25127688 0.070212744 0.71280754 4290300375
0.25156578 0.069997348 0.71380889 4290433239
0.25253302 0.06946861 0.71425629 4291027414
0.25295067 0.069193758 0.71515226 4291879904
0.253575 0.068823509 0.71587819 4292931306
0.25433138 0.068392418 0.71649384 4293914608
0.25490272 0.068046726 0.71726173 4293983222
0.25578153 0.067559414 0.71777236 4294114295
0.25667334 0.067066275 0.71826959 4294376696
0.25861263 0.066091128 0.71788293 4294573304
0.25901031 0.065825917 0.71878886 4294639097
0.25939107 0.065568455 0.71970975 4294704634
0.26013076 0.065145947 0.72032583 4294770171
0.2599833 0.06513118 0.72169816 4294770428
0.25061482 0.071879081 0.71007729 4282843516
0.25130686 0.071476795 0.71075034 4283508608
0.25132895 0.071386375 0.71196502 4284167064
0.25208181 0.070955835 0.71258819 4284040109
0.25170073 0.071052603 0.71413577 4284108461
0.25309733 0.070322879 0.71423137 4284506542
0.25342354 0.070090748 0.71520227 4284969410
0.25418824 0.069654949 0.71581191 4285497044
0.25477779 0.069300555 0.71656501 4285960160
0.25540781 0.06892743 0.71728384 4286093804
0.25590327 0.068616755 0.7181142 4286359533
0.25593626 0.068520434 0.7193327 4287149039
0.25684866 0.068016507 0.71981323 4288005872
0.25891921 0.066976495 0.71931154 4288466930
0.25980186 0.066486932 0.71980804 4289062388
0.26011547 0.066260822 0.72078705 4289783798
0.26027417 0.066106267 0.72189963 4290507513
0.26053086 0.065906264 0.72293031 4290835452
0.26098353 0.065615617 0.72379345 4291230460
0.26214516 0.064997591 0.72404325 4291755004
0.26387239 0.06411881 0.7237972 4292345085
0.26418698 0.063892253 0.7247749 4292934909
0.2647492 0.063551433 0.72553694 4293459453
0.26534432 0.063195474 0.7262696 4293590525
0.26573247 0.062934943 0.72718418 4293721597
0.26622465 0.062626444 0.7280072 4294114814
0.26691216 0.062228046 0.72865665 4294508030
0.25079554 0.072833471 0.71159625 4278255938
0.25228155 0.071979918 0.71286094 4278255959
0.25307718 0.071528651 0.71344787 4278255959
0.25393102 0.070971228 0.71522367 4278255971
0.25541207 0.070120789 0.71648008 4278261884
0.25569674 0.069908507 0.71748602 4278460297
0.25631088 0.069542415 0.71821743 4278794633
0.25623542 0.069497995 0.7195276 4280239754
0.2568886 0.069113664 0.72022676 4281686420
0.26016566 0.067506798 0.71870261 4282542239
0.26058152 0.067233674 0.71959281 4283462827
0.26088527 0.067012735 0.72057921 4284842423
0.26093182 0.066911377 0.7217871 4286287288
0.26091483 0.066839404 0.72305256 4286881465
0.26132631 0.066567995 0.72395146 4287538626
0.26235157 0.066011362 0.72431898 4288656844
0.26328215 0.065498926 0.72476518 4289838289
0.26400641 0.065082468 0.72538865 4290890198
0.26503459 0.06452506 0.72574413 4291940320
0.26562721 0.064169936 0.72647929 4292141288
0.26642197 0.063721113 0.72703511 4292403691
0.26668671 0.06351807 0.72805893 4293125614
0.26746011 0.063079305 0.7286315 4293913329
0.26798475 0.062755831 0.7294243 4294047732
0.26868308 0.062352009 0.73006111 4294375671
0.26936308 0.061956771 0.73071301 4294376186
0.2703177 0.061434604 0.73111522 4294441977
0.27120668 0.06094303 0.73157394 4294507512
0.27206776 0.060464509 0.73205525 4294573563
0.27275494 0.060066409 0.73269284 4294639102
0.27340612 0.059685014 0.73336214 4294639358
0.25900316 0.069239862 0.71888846 4280484155
0.26148537 0.067997865 0.71802962 4280811853
0.26105681 0.068120919 0.71963584 4281270627
0.26163822 0.067770429 0.7203849 4281794936
0.2614103 0.06779898 0.72182775 4282319223
0.26117861 0.067828991 0.72327852 4282516087
0.26163733 0.067535691 0.72413719 4282778505
0.26181617 0.067373268 0.72523898 4283379355
0.26246765 0.066989787 0.72593099 4283972516
0.26388082 0.066250481 0.72595584 4284435631
0.26493308 0.065680124 0.72629124 4284963008
0.2663593 0.064935438 0.72629333 4285099472
0.26755291 0.064299695 0.72649491 4285235670
0.26724574 0.064364173 0.72802448 4286026204
0.26788297 0.063988082 0.72871751 4286620638
0.2695581 0.063128419 0.7284807 4287080421
0.26940429 0.063121088 0.72987878 4287541227
0.26980478 0.06285543 0.73078132 4288002288
0.27046469 0.062469028 0.73144972 4288464367
0.27124482 0.062026821 0.73200768 4289122286
0.27221274 0.061497383 0.73239231 4289782004
0.27281216 0.061139412 0.7331109 4290372858
0.27383381 0.060585387 0.73344088 4290835194
0.27482975 0.060043536 0.7337907 4291032314
0.27494776 0.059909277 0.73494983 4291295739
0.27469653 0.059946097 0.73645461 4291754747
0.27497473 0.059737183 0.73747063 4292279035
0.2755096 0.059409238 0.73824787 4292803579
0.2759707 0.059115477 0.73909402 4293328124
0.27682069 0.05864168 0.73957348 4293786876
0.27747172 0.05826012 0.74023879 4294180092
0.26278317 0.068033777 0.72485548 4278322265
0.26374063 0.067505993 0.72527856 4278322010
0.26471484 0.06697052 0.72568375 4278321755
0.2652576 0.066638045 0.72646511 4278322020
0.26642567 0.066011839 0.72669417 4278322283
0.26724121 0.065551437 0.72723097 4278457193
0.2665931 0.065778144 0.72906721 4279244651
0.26757753 0.065238483 0.72945368 4280036471
0.26848263 0.064736225 0.72990799 4280563076
0.27122653 0.063372262 0.72870529 4281157773
0.27015811 0.06379535 0.73092949 4281882005
0.27065486 0.06348484 0.73174572 4282736799
0.27149755 0.063012384 0.73224711 4283984809
0.27069309 0.06331075 0.73425031 4285166511
0.27563912 0.060763933 0.7335161 4287403446
0.27528453 0.060851581 0.73511249 4287799491
0.2753014 0.060765468 0.73636901 4288721357
0.27533355 0.060672008 0.73761451 4289641932
0.27594134 0.060309894 0.73832345 4290563533
0.27621016 0.060105838 0.73935056 4291350486
0.27676755 0.059767239 0.74010658 4292205538
0.27773905 0.059235819 0.74046934 4292993772
0.26917535 0.065442137 0.73101735 4280549941
0.26978254 0.065079294 0.73173678 4280877633
0.27022535 0.064794011 0.73260474 4281205332
0.27173704 0.064005159 0.73249906 4281729382
0.27558759 0.061810173 0.73530662 4283050379
0.27580753 0.061630033 0.73637486 4283451294
0.27565444 0.061624952 0.73779392 4283716505
0.27632904 0.061231099 0.73844028 4284175771
0.27642372 0.061109401 0.73963189 4284701359
0.27659267 0.060952716 0.74075598 4285098691
0.27727848 0.060553588 0.74139148 4285627861
0.17386875 0.13488388 0.66084832 4281277458
0.17388546 0.13481894 0.66205859 4280553742
0.17432448 0.13589385 0.6609534 4283390533
0.17453769 0.13572678 0.66205215 4282264344
0.17506739 0.13539296 0.66297174 4279634951
0.17464426 0.13697582 0.66113555 4285695091
0.17499664 0.13673595 0.66215563 4284505643
0.17571425 0.13630262 0.66296762 4281737741
0.1767545 0.13569862 0.66359305 4279961101
0.16393042 0.1440382 0.66509366 4283454561
0.17504373 0.13801613 0.66127264 4287272844
0.17560193 0.13766721 0.66217566 4286347355
0.17621475 0.13728917 0.66304713 4283515189
0.17676783 0.13694298 0.66395271 4281077266
0.16521785 0.14463055 0.66473788 4282928474
0.17323318 0.14028975 0.66144216 4284846227
0.17613471 0.13863644 0.66223681 4286415232
0.17704678 0.13809818 0.66293621 4283976787
0.17690727 0.13812232 0.66424024 4281471767
0.1767917 0.13813353 0.66553402 4279173889
0.16989312 0.14334658 0.66370118 4284188553
0.17571157 0.14011922 0.66284496 4286483331
0.17713785 0.13930345 0.66325074 4284439127
0.17703727 0.13930845 0.66453385 4281997594
0.16997376 0.14462277 0.66278964 4282069829
0.16986787 0.1446321 0.66408384 4283857026
0.17303506 0.14287227 0.66351426 4286682516
0.17510077 0.1417082 0.66356206 4286812297
0.17655343 0.14087564 0.66395479 4284900189
0.17623538 0.14099973 0.66536695 4282326556
0.16841641 0.14669508 0.66527832 4283395452
0.16851452 0.14659503 0.66646498 4286616214
0.17354748 0.14381483 0.6648218 4287009937
0.1755299 0.14269194 0.66491365 4285295461
0.17575884 0.14252129 0.6660136 4282655518
0.16562647 0.1494993 0.667238 4282933882
0.16754788 0.14840478 0.66739047 4286287256
0.17285407 0.14546311 0.66559052 4286944920
0.17465302 0.1444363 0.6657902 4285428331
0.17484438 0.14428687 0.66691577 4282854432
0.16656917 0.15027303 0.66707432 4282539389
0.16737866 0.14978486 0.66786146 4286024091
0.17257911 0.14688814 0.66612023 4286879643
0.17437318 0.14586049 0.66632378 4285693296
0.17512167 0.14540648 0.66712791 4283118369
0.16734639 0.15113544 0.66700435 4282275963
0.16786453 0.15080723 0.66795766 4285630107
0.17412475 0.14727145 0.66684031 4286153845
0.17554966 0.14644402 0.66725278 4283579431
0.1767956 0.14571536 0.66776502 4279765512
0.24442983 0.10510007 0.72676158 4280487439
0.24461555 0.10495504 0.72790855 4280226067
0.24482399 0.10479767 0.7290386 4280027667
0.16706792 0.15258119 0.66753763 4281945454
0.16758659 0.15225273 0.66849262 4285431699
0.17428973 0.14845732 0.66711819 4286547325
0.1753931 0.14780551 0.66771805 4284106555
0.17673671 0.14702076 0.66817427 4279897622
0.24563587 0.10564386 0.7262187 4281747265
0.24517363 0.10585339 0.72790658 4281358678
0.24514416 0.10582665 0.72923678 4280956719
0.24554318 0.10556621 0.73020864 4280354826
0.16683063 0.15400809 0.6680485 4281417318
0.16757011 0.1535567 0.66887832 4285364109
0.17390671 0.14994988 0.66771483 4286810502
0.17507854 0.14925835 0.66827655 4284373064
0.17647812 0.14844018 0.66870141 4280030752
0.24676731 0.10622387 0.72573638 4284442737
0.24572709 0.10675346 0.72790819 4284773270
0.24548551 0.10684473 0.72941732 4284968526
0.2458199 0.10662008 0.73044431 4282073353
0.16734654 0.15501735 0.66812855 4280825187
0.16835609 0.15441433 0.66880262 4284905616
0.17058194 0.15313083 0.66877031 4286813863
0.17242828 0.15205991 0.66894966 4286812813
0.17302832 0.15168631 0.66984999 4284440908
0.176065 0.14995003 0.6693204 4280097826
0.23484281 0.1140833 0.73351181 4278387511
0.23535964 0.11375765 0.73441422 4282664811
0.24736008 0.10709681 0.72570336 4286810003
0.24627325 0.10765687 0.72791564 4287806648
0.2457774 0.10789073 0.72963989 4288583806
0.24610037 0.10767285 0.73067725 4283857734
0.24726692 0.10698993 0.73099852 4279248678
0.24905446 0.10596485 0.73078513 4279239431
0.16903001 0.15536967 0.66753817 4280494420
0.1695593 0.15503553 0.66848564 4283722623
0.17032829 0.15456659 0.6692943 4285501088
0.23580876 0.11478325 0.73318255 4278387526
0.23642218 0.1144041 0.73400259 4282600584
0.24009708 0.11232666 0.73225558 4286685616
0.24519354 0.1094232 0.7306028 4289049259
0.2463209 0.10875984 0.73096132 4285565055
0.24712688 0.10827477 0.73158962 4282135101
0.24778625 0.107871 0.73234123 4280353537
0.1699155 0.15616629 0.66740465 4280032807
0.1704537 0.15582722 0.66834593 4282142023
0.17099264 0.15548772 0.66928673 4283527035
0.23622072 0.11578915 0.73331344 4278387526
0.23747361 0.11505301 0.73359883 4282536072
0.24056089 0.1132937 0.73233938 4286554799
0.24177533 0.11257941 0.73264134 4288135380
0.24277121 0.11198715 0.73312366 4289573558
0.24419251 0.11115775 0.73324144 4287077013
0.24717361 0.10945906 0.73202288 4284496455
0.24767691 0.10914179 0.7329092 4281270785
0.17086703 0.15688974 0.66848373 4279838493
0.1716423 0.15641606 0.66928744 4280300883
0.23632947 0.11696539 0.73369735 4278387526
0.23797843 0.11600477 0.73365128 4282404999
0.23968938 0.11500957 0.73354566 4286293166
0.24169919 0.11384701 0.73317993 4288069076
0.24239558 0.11342113 0.73391718 4289639359
0.24382138 0.11258636 0.73403275 4287142054
0.24695876 0.11079239 0.7326805 4284563793
0.24716073 0.11064396 0.73382741 4281336321
0.17199391 0.15751347 0.66946125 4278389799
0.23617333 0.11829311 0.7343033 4278387523
0.23799747 0.1172302 0.73411101 4282273410
0.23969078 0.11624127 0.73402029 4286095792
0.24072608 0.11562356 0.73447788 4288007389
0.24208671 0.11482254 0.73465604 4289770180
0.24349588 0.11399426 0.73478711 4287208359
0.24466297 0.11330263 0.7351194 4284697937
0.24630782 0.11234183 0.73503709 4281336065
0.23643887 0.11938541 0.73455799 4278387520
0.2379021 0.11852316 0.73466784 4282074236
0.23960736 0.11752377 0.7345674 4285767601
0.24049363 0.11698895 0.7351523 4287807716
0.24193981 0.11613677 0.73525894 4289704393
0.24331701 0.11532385 0.73541832 4287340201
0.244322 0.11472198 0.73589069 4285028434
0.24582767 0.1138365 0.73592931 4281467137
0.23795325 0.11973587 0.73510265 4282005626
0.23955357 0.11879269 0.73509079 4285569453
0.24041659 0.11826993 0.73569661 4287677918
0.2418493 0.11742253 0.73581541 4289638342
0.24300024 0.11673585 0.73616886 4287472043
0.24420246 0.11602005 0.73647404 4285290835
0.24510178 0.11547693 0.73703539 4281663745
0.23635098 0.12192825 0.73558778 4278387262
0.2376475 0.1211557 0.73583907 4282004600
0.23941612 0.12011264 0.73568606 4285569193
0.23982859 0.11984704 0.73667592 4287677913
0.2413258 0.11895975 0.73674214 4289572292
0.24283063 0.11806827 0.73679525 4287472301
0.24407113 0.11732837 0.73706877 4285291092
0.24532753 0.11657947 0.73732376 4281663746
0.23636484 0.12317095 0.73605585 4278387262
0.23757118 0.12244795 0.7363838 4281937263
0.23909068 0.12154455 0.73644197 4285569187
0.23996377 0.12101383 0.73704302 4287677652
0.24133584 0.1201956 0.73721582 4289508545
0.24285948 0.11929017 0.73725313 4287473066
0.24450651 0.11831383 0.73717755 4285356627
0.24554759 0.11768664 0.73761761 4281663746
0.23704246 0.12403161 0.73596668 4278453822
0.23746622 0.12376005 0.73695391 4281805161
0.23905662 0.12281244 0.73695266 4285241502
0.24011332 0.12217421 0.73739856 4287415505
0.24106744 0.12159548 0.73792863 4289312448
0.24332613 0.12026108 0.7373364 4287536553
0.24445575 0.11958087 0.73770505 4285684819
0.24541914 0.11899703 0.7382133 4281860355
0.23572361 0.12605426 0.73755872 4278522177
0.23674077 0.12543714 0.7380501 4281672558
0.237881 0.12474845 0.73843378 4284910498
0.24015635 0.12339852 0.73784566 4287153364
0.2417224 0.12246198 0.73785281 4289114563
0.24310046 0.12163506 0.73801446 4287601837
0.24444923 0.1208253 0.73819566 4286014804
0.24533531 0.12028506 0.7387718 4282057473
0.23557767 0.12740076 0.73816556 4278651455
0.23635525 0.12692246 0.73886132 4281543272
0.2385568 0.12561014 0.73834455 4284514719
0.23985395 0.12482769 0.73858869 4286819025
0.24087733 0.12420563 0.73906213 4289047235
0.24310681 0.12287741 0.73849463 4287864241
0.2442638 0.12217731 0.73884189 4286541912
0.24522564 0.12159155 0.73935407 4282321669
0.23492622 0.12904876 0.73920089 4278851116
0.23685431 0.12789208 0.73892426 4281150011
0.23910382 0.12654626 0.73836446 4283526013
0.23994845 0.12602785 0.73899412 4285897914
0.24028343 0.12580955 0.74005914 4288126650
0.23824036 0.12833625 0.73823369 4279836188
0.23971841 0.12744179 0.73832655 4280765788
0.24070638 0.12683752 0.73883259 4282475928
0.24107742 0.12659851 0.73986566 4284185249
0.24015939 0.12843961 0.73843646 4278788420
0.24139059 0.12768915 0.73873347 4279908442
0.15707475 0.1848861 0.43961698 4292141806
0.15620998 0.18540475 0.4404957 4292340206
0.15653288 0.18519935 0.4412708 4292734191
0.15747622 0.1846157 0.44198883 4293324783
0.15936214 0.18456757 0.43873924 4289637063
0.1567952 0.18611568 0.44136879 4291153375
0.15706021 0.18594599 0.44214997 4292072931
0.15839469 0.18512192 0.44283056 4292402916
0.15736538 0.18574408 0.44373566 4292600297
0.15935981 0.18451631 0.44434971 4292469487
0.16034561 0.1839056 0.44505903 4292402927
0.16129476 0.18331742 0.4457702 4292599278
0.16248545 0.18258142 0.44645488 4292862959
0.16258585 0.18251243 0.44725108 4292930032
0.1536653 0.18911564 0.44177717 4286806718
0.15202755 0.19011474 0.44274139 4287138244
0.15757203 0.18669024 0.44464964 4288524247
0.1608642 0.18466216 0.4451322 4288920541
0.16173142 0.18412313 0.44585133 4289643491
0.16175526 0.18410194 0.44665611 4290367460
0.16124329 0.18440968 0.44751856 4290565349
0.16285467 0.18341371 0.44815788 4290763752
0.16421658 0.18257099 0.44882023 4291485419
0.16595072 0.18149972 0.44943857 4292142572
0.16679364 0.18097568 0.4501521 4292601582
0.16553614 0.18174106 0.45110247 4292995054
0.16634923 0.18123531 0.45182025 4293126128
0.16709381 0.18077162 0.45254481 4293324274
0.16862437 0.17982543 0.45317513 4293653491
0.15464234 0.18960568 0.4410013 4283710568
0.15446761 0.18970782 0.44182664 4283777650
0.16282502 0.18453485 0.4442578 4285555079
0.16161686 0.18527389 0.44518185 4286145689
0.16150656 0.18533629 0.44599974 4287003567
0.15890035 0.18693677 0.44707787 4287922863
0.16027269 0.18608546 0.4477478 4288123823
0.16679725 0.18203706 0.45108896 4291345881
0.16698718 0.18190885 0.45268828 4291874018
0.1692633 0.18050081 0.45323059 4292336361
0.16991693 0.18009251 0.45396215 4292532467
0.17042345 0.17977488 0.45471102 4292665078
0.17077312 0.17955381 0.45547909 4292862956
0.1719681 0.17881203 0.45614123 4292995305
0.17310768 0.17810434 0.45680779 4293127411
0.17389938 0.17761099 0.45751691 4293127672
0.17545703 0.17664579 0.45812452 4293258486
0.15885374 0.18805388 0.44639629 4284888960
0.15983033 0.18741757 0.45201269 4286344374
0.16316986 0.18534303 0.45326769 4287266498
0.16480377 0.18432337 0.45471206 4287990234
0.16866988 0.18192792 0.45505852 4288518624
0.16997358 0.18111718 0.45571178 4288916693
0.17114466 0.18038839 0.45637876 4289380051
0.17285597 0.17932558 0.45697415 4289778144
0.17376852 0.17875671 0.4576686 4290172650
0.17441958 0.17834952 0.45839575 4290763500
0.17517197 0.17787972 0.45910868 4291485935
0.17706144 0.17670682 0.4596673 4291945202
0.17961085 0.17512596 0.46013075 4292142322
0.18102255 0.17424846 0.46074414 4292535793
0.18139499 0.17401364 0.4614996 4293127922
0.18228823 0.17345679 0.46218145 4293390324
0.18339938 0.17276525 0.46283036 4293521396
0.18183023 0.17373085 0.46386653 4293718002
0.18204343 0.17359442 0.46464756 4293979889
0.16616148 0.18455923 0.45550007 4285288081
0.16909206 0.18273669 0.45595533 4285878673
0.17089543 0.18161386 0.45654443 4286341781
0.17178661 0.18105718 0.45724559 4286870177
0.17248654 0.18061918 0.45797002 4287398319
0.1739257 0.1797224 0.45859632 4288056253
0.17660412 0.17805654 0.45905399 4288976840
